ply
                format ascii 1.0
                element vertex 50176
                property float x
                property float y
                property float z
                property uchar red
                property uchar green
                property uchar blue
                end_header
-1.530385 1.364258 -0.818002 89 97 107
-1.506749 1.364258 -0.860567 91 99 109
-1.481925 1.364258 -0.902424 91 101 111
-1.455959 1.363625 -0.943550 93 104 114
-1.428793 1.363281 -0.983995 97 107 117
-1.400566 1.363281 -1.023600 100 107 117
-1.371225 1.363281 -1.062395 98 109 117
-1.340803 1.363281 -1.100359 99 110 118
-1.309309 1.363281 -1.137482 100 112 122
-1.276845 1.363281 -1.173633 105 117 126
-1.243331 1.363281 -1.208875 102 112 120
-1.208815 1.363281 -1.243271 78 92 101
-1.173424 1.363281 -1.276573 51 61 71
-1.137092 1.363281 -1.308879 76 88 96
-1.099861 1.362718 -1.340191 109 120 128
-1.061750 1.362305 -1.370440 55 67 77
-1.022858 1.362305 -1.399582 90 101 112
-0.983279 1.362305 -1.427768 106 118 127
-0.942760 1.362305 -1.454741 104 113 121
-0.901548 1.362305 -1.480526 101 112 120
-0.859640 1.362305 -1.505139 104 116 121
-0.817025 1.362305 -1.528562 41 53 65
-0.773770 1.362305 -1.550760 100 111 119
-0.729919 1.362305 -1.571727 88 99 109
-0.685538 1.362305 -1.591456 97 106 116
-0.640590 1.362305 -1.609919 100 111 119
-0.595109 1.362305 -1.627202 96 107 118
-0.549228 1.361843 -1.643119 99 110 120
-0.502883 1.361328 -1.657796 98 108 118
-0.456152 1.361328 -1.671139 95 106 116
-0.409093 1.361328 -1.683162 97 107 118
-0.361711 1.361328 -1.693868 100 111 122
-0.314013 1.361328 -1.703306 97 107 117
-0.266118 1.361328 -1.711270 94 107 116
-0.218020 1.361328 -1.717984 95 108 116
-0.169731 1.361328 -1.723288 96 107 118
-0.121317 1.361328 -1.727293 96 108 117
-0.072833 1.361328 -1.729928 95 108 117
-0.024296 1.361328 -1.731175 95 108 118
0.024295 1.361097 -1.731073 95 107 117
0.072820 1.360417 -1.729667 96 108 118
0.121284 1.360352 -1.726850 96 108 118
0.169670 1.360352 -1.722685 94 104 114
0.217915 1.360352 -1.717170 94 109 120
0.265968 1.360352 -1.710320 97 109 120
0.313805 1.360352 -1.702043 97 109 120
0.361437 1.360352 -1.692569 99 112 121
0.408740 1.360352 -1.681705 110 123 134
0.455711 1.360352 -1.669522 108 119 130
0.502348 1.360352 -1.656009 84 96 108
0.548590 1.360352 -1.641221 67 79 91
0.594386 1.360352 -1.625155 105 116 128
0.639666 1.360352 -1.607772 103 115 125
0.684551 1.360352 -1.589179 85 96 108
0.728819 1.360352 -1.569319 111 122 131
0.772504 1.360352 -1.548225 110 122 133
0.815617 1.360352 -1.525907 109 119 130
0.858075 1.360352 -1.502394 118 127 135
0.899852 1.360352 -1.477727 116 124 132
0.940921 1.360352 -1.451892 120 128 136
0.981278 1.360352 -1.424890 119 129 136
1.020838 1.360344 -1.396801 123 131 139
1.059615 1.360287 -1.367596 122 128 136
1.097542 1.360213 -1.337330 125 132 139
1.134621 1.360107 -1.306022 123 132 139
1.170739 1.360107 -1.273698 125 132 140
1.205991 1.360107 -1.240360 123 132 139
1.240360 1.360107 -1.205991 127 133 142
1.273706 1.360107 -1.170745 123 130 137
1.306027 1.360200 -1.134627 126 132 140
1.337341 1.360279 -1.097542 125 132 139
1.367608 1.360345 -1.059617 125 133 141
1.396837 1.360352 -1.020864 122 131 138
1.424953 1.360352 -0.981316 123 131 139
1.451956 1.360352 -0.940979 121 129 139
1.477816 1.360352 -0.899915 91 100 110
1.502519 1.360352 -0.858146 114 124 133
1.526025 1.360352 -0.815690 115 125 134
1.548385 1.360352 -0.772589 115 124 134
1.569495 1.360352 -0.728889 118 127 136
1.589352 1.360352 -0.684627 95 104 115
1.607950 1.360352 -0.639729 112 122 132
1.625389 1.360352 -0.594472 109 120 126
1.641495 1.360352 -0.548667 112 121 129
1.656313 1.360352 -0.502426 110 119 127
1.669830 1.360352 -0.455791 104 114 124
1.682042 1.360352 -0.408823 105 115 124
1.692940 1.360352 -0.361510 107 115 124
1.702445 1.360405 -0.313882 105 113 123
1.710718 1.361062 -0.266031 103 114 124
1.717607 1.361328 -0.217972 96 106 116
1.723144 1.361328 -0.169712 95 105 114
1.727310 1.361328 -0.121318 94 104 114
1.730066 1.361328 -0.072839 91 102 112
1.730682 1.360718 -0.024296 88 100 109
1.720119 1.352265 0.024100 17 29 38
1.542431 1.213682 0.064567 96 110 121
1.481038 1.167248 0.103954 96 114 127
1.446563 1.142616 0.142411 105 120 131
1.413249 1.119881 0.179284 121 134 145
1.381307 1.098871 0.214747 117 134 143
1.350448 1.079454 0.248925 122 137 149
1.320694 1.061575 0.281959 129 144 155
1.291879 1.045095 0.313974 137 149 159
1.263893 1.029908 0.344944 141 153 163
1.236816 1.015936 0.375126 147 161 172
1.210244 1.003122 0.404502 103 134 154
1.184469 0.991405 0.433162 145 159 169
1.159231 0.980737 0.461181 148 162 171
1.134494 0.971034 0.488653 155 167 174
1.110233 0.962299 0.515522 161 172 179
1.086376 0.954439 0.542079 153 165 172
1.062963 0.947470 0.568147 155 168 174
1.039831 0.941324 0.593882 162 171 179
1.016986 0.935996 0.619269 165 175 180
0.994363 0.931453 0.644408 169 177 183
0.971985 0.927715 0.669342 170 178 184
0.949681 0.924700 0.694076 174 182 186
0.927592 0.922432 0.718660 172 181 184
0.917418 0.933007 0.753064 4 4 15
1.008551 1.050412 0.876600 64 59 63
1.012077 1.080649 0.930310 94 88 90
0.986424 1.081563 0.959131 95 96 96
0.960704 1.083356 0.988041 100 103 104
0.934899 1.085982 1.017100 110 108 109
0.908963 1.089522 1.046288 109 108 112
0.882807 1.093935 1.075735 111 110 111
0.856407 1.099285 1.105431 113 115 115
0.829891 1.105539 1.135457 112 113 113
0.802840 1.112770 1.165875 110 115 117
0.775544 1.121006 1.196707 117 115 118
0.747772 1.130268 1.228061 112 114 115
0.719574 1.140594 1.259918 110 113 113
0.690792 1.152027 1.292470 106 108 110
0.661430 1.164641 1.325709 106 105 106
0.631442 1.178521 1.359790 101 102 103
0.600688 1.193677 1.394497 94 97 98
0.568802 1.209719 1.429625 93 90 91
0.534951 1.224395 1.462820 84 84 85
0.500045 1.240074 1.496170 73 75 76
0.464458 1.257948 1.531348 63 66 68
0.428268 1.278641 1.569220 53 50 53
0.389383 1.296163 1.602263 11 12 16
0.347843 1.309467 1.629104 95 100 104
0.305096 1.322916 1.655061 114 119 123
0.261348 1.337153 1.680862 38 43 49
0.216492 1.351944 1.706265 82 92 100
0.169591 1.359866 1.721990 76 83 91
0.121277 1.360352 1.726718 76 82 90
0.072811 1.360352 1.729430 81 87 93
0.024292 1.360352 1.730799 81 86 92
-0.025003 1.360352 1.781587 79 84 90
-0.074947 1.360352 1.780181 81 85 91
-0.124835 1.360352 1.777390 82 87 94
-0.174645 1.360352 1.773190 82 87 92
-0.224319 1.360352 1.767591 84 89 95
-0.273788 1.360352 1.760625 88 94 98
-0.323065 1.360352 1.752259 92 97 101
-0.372110 1.360352 1.742536 90 95 101
-0.420824 1.360352 1.731431 64 72 75
-0.469211 1.360352 1.718996 79 86 90
-0.517257 1.360352 1.705152 87 94 98
-0.564878 1.360352 1.689999 83 88 90
-0.612055 1.360352 1.673520 85 91 95
-0.658764 1.360352 1.655755 62 67 72
-0.704978 1.360352 1.636600 66 72 76
-0.750562 1.360352 1.616240 84 90 94
-0.795621 1.360352 1.594581 69 75 79
-0.840080 1.360574 1.571672 81 85 91
-0.883854 1.361102 1.547519 79 85 89
-0.926919 1.361328 1.522208 76 83 85
-0.969273 1.361328 1.495613 75 80 81
-1.010872 1.361328 1.467869 76 79 84
-1.051681 1.361328 1.438966 72 76 82
-1.091637 1.361328 1.408954 78 82 91
-1.130729 1.361306 1.377809 72 76 85
-1.168768 1.360978 1.345350 79 84 90
-1.205489 1.360256 1.311473 76 81 88
-1.240978 1.359382 1.276317 81 85 91
-1.276122 1.359116 1.240745 84 88 95
-1.311035 1.359795 1.205102 86 95 96
-1.344488 1.359956 1.168016 103 111 111
-1.377605 1.360781 1.130568 104 112 110
-1.409635 1.361432 1.092155 103 113 107
-1.439966 1.362174 1.052395 100 110 108
-1.469236 1.362305 1.011820 86 95 95
-1.497351 1.362305 0.970376 81 89 93
-1.524323 1.362768 0.928210 55 61 70
-1.550070 1.363281 0.885297 79 84 93
-1.574614 1.363281 0.841659 56 63 71
-1.597966 1.363523 0.797335 64 71 79
-1.620086 1.364251 0.752405 74 81 89
-1.640923 1.364258 0.706832 66 76 84
-1.660494 1.364403 0.660658 69 74 82
-1.678768 1.365226 0.613962 63 67 73
-1.695580 1.365234 0.566758 70 74 80
-1.711064 1.365234 0.519046 69 75 81
-1.725155 1.365234 0.470890 72 78 81
-1.737726 1.365234 0.422347 69 76 80
-1.748868 1.365234 0.373471 75 81 85
-1.758605 1.365234 0.324208 73 79 83
-1.766979 1.365234 0.274783 75 81 85
-1.773943 1.365234 0.225118 76 82 86
-1.779506 1.365234 0.175265 76 82 87
-1.783666 1.365234 0.125277 76 81 86
-1.786442 1.365234 0.075213 74 82 92
-1.787770 1.365234 0.025091 64 77 84
-1.787711 1.365234 -0.025090 80 94 101
-1.786256 1.365234 -0.075205 78 91 99
-1.783374 1.365234 -0.125255 80 93 101
-1.779094 1.365234 -0.175226 83 95 102
-1.773408 1.365234 -0.225055 80 86 90
-1.766339 1.365234 -0.274674 84 91 96
-1.757839 1.365234 -0.324094 86 92 96
-1.747966 1.365234 -0.373275 86 92 97
-1.736750 1.365181 -0.422115 86 93 97
-1.724141 1.364531 -0.470618 84 90 94
-1.710174 1.364258 -0.518770 83 92 96
-1.694862 1.364258 -0.566516 82 91 94
-1.678224 1.364258 -0.613774 82 90 100
-1.660211 1.364258 -0.660546 78 87 96
-1.640911 1.364258 -0.706820 80 88 100
-1.620337 1.364258 -0.752488 86 95 105
-1.598487 1.364258 -0.797578 88 97 107
-1.575378 1.364258 -0.842070 88 97 107
-1.551037 1.364258 -0.885869 91 99 110
-1.525460 1.364258 -0.928936 88 96 106
-1.498733 1.363760 -0.971290 93 104 114
-1.470812 1.363281 -1.012889 100 111 120
-1.441750 1.363281 -1.053670 98 109 118
-1.411523 1.363281 -1.093626 99 107 118
-1.380194 1.363281 -1.132695 100 112 118
-1.347805 1.363281 -1.170880 99 110 120
-1.314343 1.363281 -1.208197 102 113 121
-1.279890 1.363281 -1.244346 100 110 120
-1.244330 1.363281 -1.279808 102 115 122
-1.207960 1.363281 -1.314075 102 113 123
-1.170511 1.363281 -1.347342 103 114 121
-1.132159 1.362538 -1.379537 105 115 123
-1.092950 1.362305 -1.410676 89 99 110
-1.052915 1.362305 -1.440683 97 108 117
-1.012138 1.362305 -1.469689 78 89 98
-0.970449 1.362305 -1.497441 100 109 117
-0.928023 1.362305 -1.523957 100 111 119
-0.884882 1.362305 -1.549327 104 115 123
-0.841014 1.362305 -1.573427 85 96 105
-0.796488 1.362305 -1.596282 103 114 123
-0.751381 1.362305 -1.617875 103 114 124
-0.705659 1.362305 -1.638197 93 104 112
-0.659368 1.362305 -1.657210 87 95 105
-0.612592 1.362245 -1.674940 98 108 118
-0.565354 1.361392 -1.691372 97 108 118
-0.517651 1.361328 -1.706443 96 107 117
-0.469544 1.361328 -1.720176 96 106 116
-0.421099 1.361328 -1.732551 95 106 116
-0.372329 1.361328 -1.743583 93 104 114
-0.323229 1.361328 -1.753217 92 104 113
-0.273917 1.361328 -1.761474 93 103 113
-0.224416 1.361328 -1.768384 94 107 117
-0.174712 1.361328 -1.773860 93 105 116
-0.124874 1.361328 -1.777963 92 105 115
-0.074971 1.361328 -1.780674 93 107 118
-0.025009 1.361048 -1.781989 93 105 114
0.025008 1.360390 -1.781875 93 105 115
0.074956 1.360352 -1.780377 92 103 113
0.124843 1.360352 -1.777485 94 107 116
0.174648 1.360352 -1.773208 91 105 115
0.224310 1.360352 -1.767518 94 107 116
0.273769 1.360352 -1.760468 96 108 118
0.323024 1.360352 -1.752042 95 107 118
0.372048 1.360352 -1.742208 99 110 120
0.420721 1.360352 -1.730991 102 114 123
0.469078 1.360352 -1.718476 101 113 124
0.517074 1.360352 -1.704560 74 87 96
0.564674 1.360352 -1.689327 42 55 65
0.611800 1.360352 -1.672789 100 112 123
0.658446 1.360352 -1.654915 103 111 122
0.704598 1.360352 -1.635756 103 114 124
0.750142 1.360352 -1.615314 107 115 125
0.795133 1.360352 -1.593614 111 120 129
0.839517 1.360344 -1.570630 111 120 127
0.883227 1.360190 -1.546437 116 124 130
0.926229 1.359961 -1.521017 121 128 135
0.968512 1.359756 -1.494441 126 133 139
1.010009 1.359591 -1.466653 125 133 140
1.050760 1.359432 -1.437720 126 133 141
1.090653 1.359375 -1.407695 130 136 144
1.129696 1.359375 -1.376547 132 137 143
1.167866 1.359375 -1.344305 132 136 142
1.205151 1.359375 -1.311017 132 139 146
1.241356 1.359375 -1.276729 131 137 145
1.276731 1.359375 -1.241356 131 137 144
1.311021 1.359375 -1.205157 130 137 144
1.344305 1.359375 -1.167866 127 134 141
1.376547 1.359375 -1.129702 129 136 144
1.407716 1.359467 -1.090669 126 133 141
1.437755 1.359699 -1.050794 126 133 141
1.466718 1.359978 -1.010077 125 133 140
1.494509 1.360258 -0.968543 121 129 136
1.521116 1.360352 -0.926289 118 127 135
1.546543 1.360352 -0.883299 115 123 131
1.570763 1.360352 -0.839585 113 121 131
1.593749 1.360352 -0.795257 70 80 91
1.615469 1.360352 -0.750261 105 115 126
1.635949 1.360352 -0.704683 111 121 131
1.655139 1.360352 -0.658519 111 120 129
1.673027 1.360352 -0.611880 110 119 128
1.689612 1.360352 -0.564752 111 119 126
1.704870 1.360352 -0.517166 109 118 126
1.718794 1.360352 -0.469156 108 117 126
1.731329 1.360352 -0.420796 107 116 126
1.742556 1.360352 -0.372114 104 112 122
1.752434 1.360352 -0.323084 100 111 118
1.760876 1.360376 -0.273830 99 110 118
1.767993 1.360992 -0.224364 95 105 115
1.773646 1.361328 -0.174684 93 103 113
1.777903 1.361328 -0.124868 90 100 109
1.779407 1.360230 -0.074928 87 99 108
1.767234 1.349672 -0.024850 39 55 65
1.746032 1.333462 0.024447 101 114 119
1.543203 1.179515 0.064596 106 120 132
1.481033 1.133795 0.103943 115 128 139
1.446346 1.109890 0.142390 112 127 138
1.413070 1.087775 0.179268 125 138 148
1.381129 1.067389 0.214710 127 142 151
1.350317 1.048556 0.248894 130 144 154
1.320544 1.031166 0.281940 134 147 157
1.291717 1.015136 0.313881 141 153 162
1.263793 1.000396 0.344909 147 158 167
1.236680 0.986808 0.375075 148 159 169
1.210165 0.974382 0.404465 149 161 170
1.184320 0.963005 0.433115 151 164 175
1.159111 0.952647 0.461132 155 169 175
1.134383 0.943197 0.488618 161 172 178
1.110139 0.934718 0.515522 163 174 181
1.086319 0.927101 0.542027 164 176 181
1.062851 0.920318 0.568084 163 173 178
1.039723 0.914351 0.593823 161 172 178
1.016886 0.909181 0.619197 172 181 186
0.994292 0.904781 0.644329 173 181 186
0.971828 0.901120 0.669276 176 183 189
0.949638 0.898202 0.694008 178 186 189
0.927494 0.896005 0.718601 180 189 191
0.917271 0.906287 0.753015 4 2 16
1.014650 1.026572 0.881841 78 69 75
1.011805 1.049496 0.930039 101 95 98
0.986152 1.050369 0.958857 107 105 108
0.960423 1.052104 0.987778 114 109 112
0.934614 1.054671 1.016794 116 111 114
0.908672 1.058096 1.045992 121 116 117
0.882536 1.062365 1.075407 121 120 121
0.856221 1.067589 1.105110 124 122 124
0.829487 1.073671 1.135133 124 125 126
0.802656 1.080690 1.165502 128 123 125
0.775272 1.088684 1.196373 125 123 126
0.747566 1.097662 1.227676 121 122 122
0.719334 1.107691 1.259560 120 120 122
0.690601 1.118832 1.292073 120 121 122
0.661246 1.131104 1.325356 117 117 118
0.631254 1.144558 1.359332 118 114 116
0.600544 1.159296 1.394241 108 111 113
0.568920 1.175340 1.429998 108 106 106
0.535753 1.191219 1.465045 97 100 100
0.500839 1.206562 1.498498 93 92 95
0.465019 1.223460 1.533141 83 82 84
0.428831 1.243821 1.571299 70 72 71
0.391540 1.266283 1.611251 58 58 60
0.352200 1.288106 1.649581 37 38 40
0.309621 1.304208 1.679612 77 85 89
0.265265 1.318488 1.706079 109 113 118
0.219895 1.334079 1.733108 52 57 62
0.173157 1.349406 1.758580 78 88 96
0.124745 1.359523 1.776239 75 79 88
0.074947 1.360352 1.780170 76 81 87
0.025003 1.360352 1.781587 77 82 87
-0.025743 1.360352 1.834138 74 78 83
-0.077162 1.360352 1.832851 76 80 86
-0.128526 1.360352 1.829903 78 83 89
-0.179811 1.360352 1.825615 83 88 93
-0.230949 1.360352 1.819880 87 91 97
-0.281886 1.360352 1.812685 86 92 96
-0.332610 1.360352 1.804060 87 93 97
-0.383107 1.360352 1.794061 87 93 95
-0.433267 1.360352 1.782626 87 93 97
-0.483077 1.360352 1.769801 68 73 79
-0.532559 1.360352 1.755582 85 91 94
-0.581579 1.360352 1.739974 82 87 91
-0.630164 1.360352 1.723003 84 90 93
-0.678224 1.360352 1.704684 84 88 94
-0.725826 1.360352 1.685023 74 80 84
-0.772800 1.360352 1.664026 82 87 91
-0.819174 1.360352 1.641745 60 66 67
-0.864928 1.360352 1.618147 73 80 82
-0.910048 1.360356 1.593297 71 76 80
-0.954326 1.360702 1.567216 70 76 77
-0.997923 1.361240 1.539867 73 80 81
-1.040774 1.361328 1.511253 72 75 81
-1.082752 1.361269 1.481529 70 75 80
-1.123606 1.360759 1.450214 70 76 80
-1.163082 1.359740 1.417232 71 76 83
-1.201403 1.358623 1.382924 75 79 89
-1.238886 1.357690 1.347828 74 79 84
-1.276024 1.357615 1.312302 78 84 85
-1.312424 1.357736 1.276177 85 92 92
-1.348916 1.358799 1.240001 98 104 102
-1.383527 1.359240 1.201924 116 131 119
-1.416151 1.358652 1.162218 123 134 124
-1.449988 1.360279 1.123385 116 129 118
-1.482331 1.361444 1.083353 112 123 117
-1.512455 1.362183 1.041591 77 86 85
-1.541400 1.362305 0.998946 76 82 85
-1.569196 1.362310 0.955540 66 74 78
-1.595688 1.362963 0.911337 75 79 88
-1.621010 1.363281 0.866447 69 75 83
-1.645078 1.363281 0.820813 74 80 88
-1.667797 1.363853 0.774542 73 81 88
-1.689278 1.364258 0.727655 64 68 77
-1.709457 1.364258 0.680131 67 70 79
-1.728309 1.364902 0.632081 67 71 78
-1.745758 1.365234 0.583519 72 76 82
-1.761762 1.365234 0.534441 68 73 78
-1.776425 1.365385 0.484886 70 74 80
-1.789342 1.365306 0.434895 70 75 81
-1.800784 1.365234 0.384551 71 78 82
-1.810828 1.365234 0.333849 71 77 81
-1.819447 1.365234 0.282943 71 77 81
-1.826588 1.365234 0.231810 75 81 85
-1.832358 1.365234 0.180471 77 83 88
-1.836617 1.365234 0.128995 76 80 85
-1.839460 1.365234 0.077445 77 82 88
-1.840858 1.365234 0.025836 76 83 91
-1.840792 1.365234 -0.025834 75 90 98
-1.839258 1.365234 -0.077437 76 91 98
-1.836329 1.365234 -0.128972 79 88 93
-1.831906 1.365234 -0.180425 82 88 88
-1.826052 1.365234 -0.231731 85 91 93
-1.818745 1.365234 -0.282831 84 90 92
-1.810030 1.365234 -0.333702 87 94 96
-1.799849 1.365234 -0.384348 87 93 97
-1.788283 1.365234 -0.434641 86 93 98
-1.775298 1.365211 -0.484574 86 92 96
-1.760903 1.364576 -0.534167 81 87 91
-1.745117 1.364258 -0.583315 82 89 93
-1.727965 1.364258 -0.631966 82 89 95
-1.709433 1.364258 -0.680131 46 50 59
-1.689561 1.364258 -0.727777 59 68 77
-1.668366 1.364258 -0.774812 84 92 103
-1.645857 1.364258 -0.821225 51 59 70
-1.622054 1.364258 -0.867006 93 100 111
-1.597000 1.364258 -0.912100 61 69 79
-1.570695 1.364258 -0.956475 95 102 112
-1.543152 1.363884 -1.000070 68 78 88
-1.514373 1.363281 -1.042920 79 91 101
-1.484440 1.363281 -1.084876 98 109 118
-1.453330 1.363281 -1.126016 98 106 116
-1.421076 1.363281 -1.166256 97 108 113
-1.387713 1.363281 -1.205559 99 109 120
-1.353277 1.363281 -1.243948 99 109 117
-1.317791 1.363281 -1.281304 100 110 119
-1.281199 1.363281 -1.317689 103 112 121
-1.243656 1.363281 -1.352983 101 112 120
-1.205161 1.363278 -1.387242 95 106 114
-1.165667 1.362369 -1.420396 101 113 121
-1.125322 1.362305 -1.452417 99 110 119
-1.084076 1.362305 -1.483307 94 105 113
-1.042088 1.362305 -1.513173 99 108 116
-0.999163 1.362305 -1.541747 99 108 116
-0.955487 1.362305 -1.569067 98 108 118
-0.911077 1.362305 -1.595174 103 115 123
-0.865905 1.362305 -1.620016 101 110 119
-0.820057 1.362305 -1.643520 96 107 116
-0.773592 1.362305 -1.665736 78 90 98
-0.726533 1.362305 -1.686657 97 108 118
-0.678863 1.362305 -1.706260 79 90 99
-0.630710 1.361820 -1.724520 98 107 118
-0.582060 1.361328 -1.741396 88 97 108
-0.532946 1.361328 -1.756902 32 41 53
-0.483433 1.361328 -1.771048 90 101 110
-0.433544 1.361328 -1.783770 89 101 112
-0.383336 1.361328 -1.795135 90 102 112
-0.332787 1.361328 -1.805028 90 101 111
-0.282031 1.361328 -1.813554 90 101 112
-0.231056 1.361328 -1.820652 89 101 110
-0.179871 1.361328 -1.826324 90 100 110
-0.128565 1.361328 -1.830543 90 100 110
-0.077186 1.361047 -1.833299 90 101 111
-0.025748 1.360381 -1.834758 90 101 112
0.025747 1.360352 -1.834601 103 116 123
0.077173 1.360352 -1.833024 90 105 115
0.128533 1.360352 -1.830029 92 104 115
0.179811 1.360352 -1.825608 91 105 114
0.230940 1.360352 -1.819753 94 106 116
0.281861 1.360352 -1.812508 92 105 115
0.332551 1.360352 -1.803798 88 101 110
0.383024 1.360352 -1.793662 91 101 112
0.433149 1.360352 -1.782144 99 111 121
0.482946 1.360352 -1.769225 104 116 125
0.532350 1.360352 -1.754933 79 92 101
0.581352 1.360352 -1.739240 95 107 118
0.629866 1.360352 -1.722168 97 109 118
0.677889 1.360352 -1.703814 97 111 121
0.725409 1.360329 -1.684069 100 112 121
0.772339 1.360069 -1.663023 104 115 123
0.818635 1.359754 -1.640695 110 120 128
0.864320 1.359468 -1.617046 114 123 131
0.909263 1.359375 -1.592104 122 127 134
0.953593 1.359375 -1.565953 115 122 130
0.997110 1.359375 -1.538590 125 132 136
1.039862 1.359375 -1.509971 149 156 161
1.081780 1.359375 -1.480192 149 154 159
1.122868 1.359375 -1.449286 147 152 156
1.163063 1.359375 -1.417202 148 155 160
1.202381 1.359375 -1.384003 152 157 162
1.240685 1.359375 -1.349737 154 157 164
1.278044 1.359375 -1.314443 152 156 162
1.314447 1.359375 -1.278044 154 159 165
1.349755 1.359375 -1.240691 152 157 162
1.384017 1.359375 -1.202387 144 151 157
1.417203 1.359375 -1.163081 128 136 142
1.449303 1.359375 -1.122868 130 137 144
1.480204 1.359375 -1.081798 128 136 143
1.510010 1.359375 -1.039877 128 135 142
1.538628 1.359389 -0.997149 125 132 140
1.566040 1.359621 -0.953637 119 126 133
1.592223 1.359981 -0.909329 116 123 130
1.617157 1.360306 -0.864384 112 121 129
1.640820 1.360352 -0.818698 111 120 129
1.663183 1.360352 -0.772406 110 119 126
1.684274 1.360352 -0.725505 110 117 128
1.704024 1.360352 -0.677980 109 116 126
1.722460 1.360352 -0.629944 106 115 122
1.739517 1.360352 -0.581432 106 115 122
1.755227 1.360352 -0.532429 106 114 123
1.769551 1.360352 -0.483008 102 111 119
1.782489 1.360352 -0.433238 103 111 121
1.794032 1.360352 -0.383103 98 109 117
1.804205 1.360352 -0.332629 97 107 114
1.812923 1.360352 -0.281916 94 105 112
1.820216 1.360361 -0.230989 92 101 110
1.826038 1.360596 -0.179847 89 99 108
1.828601 1.359537 -0.128446 90 101 112
1.815467 1.347699 -0.076489 53 65 75
1.794484 1.331040 -0.025235 105 118 125
1.773314 1.315333 0.024840 88 94 98
1.557467 1.156233 0.065024 112 126 137
1.481033 1.101025 0.103931 122 135 145
1.446152 1.077800 0.142364 122 136 145
1.412915 1.056344 0.179253 130 142 152
1.380945 1.036571 0.214690 132 147 156
1.350162 1.018276 0.248856 140 152 161
1.320354 1.001378 0.281906 144 156 163
1.291567 0.985847 0.313827 148 160 166
1.263670 0.971518 0.344881 148 159 168
1.236334 0.958340 0.375044 145 158 166
1.210036 0.946253 0.404401 148 163 170
1.184204 0.935230 0.433066 147 161 171
1.158998 0.925150 0.461093 160 171 179
1.134241 0.916019 0.488567 165 175 182
1.110062 0.907735 0.515522 169 178 184
1.086251 0.900347 0.541971 165 176 181
1.062721 0.893765 0.568022 165 178 183
1.039627 0.887973 0.593756 172 181 187
1.016762 0.882951 0.619138 178 185 191
0.994162 0.878674 0.644288 175 184 187
0.971745 0.875122 0.669200 175 184 187
0.949495 0.872274 0.693920 181 189 192
0.927410 0.870139 0.718513 178 186 189
0.917153 0.880089 0.752873 11 10 20
1.026567 1.008723 0.892059 98 92 95
1.011495 1.019040 0.929771 107 105 106
0.985859 1.019876 0.958574 115 115 118
0.960144 1.021528 0.987496 120 116 119
0.934355 1.024044 1.016501 122 121 121
0.908424 1.027348 1.045676 131 126 128
0.882303 1.031524 1.075095 128 129 128
0.855901 1.036572 1.104792 129 128 128
0.829402 1.042471 1.134782 134 130 132
0.802359 1.049272 1.165165 135 132 135
0.775085 1.057082 1.195993 132 131 134
0.747315 1.065807 1.227310 130 130 132
0.719145 1.075502 1.259194 126 130 130
0.690397 1.086336 1.291735 132 133 134
0.661075 1.098271 1.324961 128 126 128
0.631081 1.111338 1.358973 128 126 127
0.600341 1.125631 1.393967 120 119 120
0.568789 1.141235 1.429804 116 115 115
0.536207 1.157979 1.466248 111 113 111
0.501600 1.173654 1.500803 109 108 109
0.465641 1.189878 1.535189 100 98 98
0.429221 1.209137 1.572709 83 86 86
0.391898 1.230980 1.612752 74 78 78
0.353170 1.254568 1.654258 61 63 64
0.312694 1.279412 1.696425 47 49 50
0.269145 1.299335 1.731093 47 52 56
0.222862 1.313226 1.756519 105 110 112
0.175792 1.330570 1.785350 84 88 95
0.127249 1.347695 1.812597 77 84 92
0.077087 1.359269 1.831357 71 76 82
0.025743 1.360352 1.834138 72 77 83
-0.026510 1.360352 1.888969 69 74 81
-0.079465 1.360352 1.887478 72 77 83
-0.132360 1.360352 1.884513 77 82 88
-0.185172 1.360352 1.880067 79 84 90
-0.237836 1.360352 1.874160 83 88 94
-0.290299 1.360352 1.866753 83 89 95
-0.342529 1.360352 1.857899 82 90 94
-0.394539 1.360352 1.847565 84 90 92
-0.446193 1.360352 1.835795 84 90 94
-0.497494 1.360352 1.822569 64 70 74
-0.548438 1.360352 1.807958 80 86 90
-0.598946 1.360352 1.791870 87 92 99
-0.648962 1.360352 1.774419 80 85 88
-0.698461 1.360352 1.755528 75 80 84
-0.747455 1.360352 1.735278 75 80 85
-0.795853 1.360352 1.713668 74 79 83
-0.843605 1.360352 1.690692 69 74 76
-0.890724 1.360352 1.666425 67 72 76
-0.937129 1.360352 1.640831 69 75 79
-0.982799 1.360352 1.613949 69 74 76
-1.027701 1.360427 1.585775 69 74 79
-1.071550 1.360642 1.555986 66 71 77
-1.113954 1.359550 1.524202 67 72 78
-1.155162 1.358232 1.490983 68 73 79
-1.195433 1.357024 1.456645 69 73 81
-1.234957 1.356104 1.421577 68 73 79
-1.274226 1.355942 1.386252 73 76 85
-1.312702 1.356006 1.350059 75 80 86
-1.350217 1.356141 1.312845 90 96 97
-1.388281 1.357896 1.276131 99 108 104
-1.424090 1.358457 1.237194 138 156 137
-1.457596 1.357859 1.196215 149 161 144
-1.490038 1.357400 1.154447 141 157 139
-1.524610 1.359782 1.114250 135 148 131
-1.557340 1.361476 1.072491 107 116 109
-1.587157 1.362223 1.028574 86 93 93
-1.615735 1.362305 0.983905 72 77 79
-1.643028 1.362364 0.938423 67 72 76
-1.669130 1.363144 0.892170 69 72 82
-1.693896 1.363281 0.845196 64 72 80
-1.717368 1.363335 0.797572 64 67 76
-1.739494 1.364153 0.749292 62 65 75
-1.760244 1.364258 0.700333 62 65 74
-1.779518 1.364324 0.650832 64 68 75
-1.797164 1.364599 0.600705 69 76 80
-1.813221 1.364524 0.550028 68 73 79
-1.828947 1.365299 0.499231 66 72 77
-1.842929 1.366179 0.447922 67 72 78
-1.854724 1.366019 0.396065 70 76 81
-1.865063 1.365729 0.343847 68 74 78
-1.873926 1.365416 0.291416 72 78 82
-1.881312 1.365234 0.238748 72 77 84
-1.887223 1.365234 0.185871 72 79 81
-1.891649 1.365234 0.132857 74 80 84
-1.894558 1.365234 0.079762 79 84 89
-1.896007 1.365234 0.026609 77 82 85
-1.895935 1.365234 -0.026608 77 84 90
-1.894338 1.365234 -0.079755 80 86 89
-1.891299 1.365234 -0.132832 78 83 87
-1.886741 1.365234 -0.185829 84 90 94
-1.880702 1.365234 -0.238672 81 89 93
-1.873205 1.365234 -0.291297 82 86 92
-1.864204 1.365234 -0.343693 85 91 95
-1.853728 1.365234 -0.395844 87 92 97
-1.841809 1.365234 -0.447654 86 92 96
-1.828442 1.365234 -0.499091 86 92 96
-1.813633 1.365152 -0.550153 85 91 95
-1.797334 1.364286 -0.600765 85 90 95
-1.779666 1.364258 -0.650881 82 88 94
-1.760569 1.364258 -0.700453 80 88 98
-1.740067 1.364258 -0.749544 76 83 91
-1.718247 1.364258 -0.797967 85 91 99
-1.695068 1.364258 -0.845772 89 98 107
-1.670538 1.364258 -0.892931 91 99 109
-1.644729 1.364258 -0.939376 85 92 105
-1.617640 1.364258 -0.985044 80 88 98
-1.589279 1.364020 -1.029922 42 53 64
-1.559621 1.363281 -1.074063 74 86 95
-1.528811 1.363281 -1.117293 97 108 118
-1.496765 1.363281 -1.159642 97 105 114
-1.463536 1.363281 -1.201098 96 106 114
-1.429169 1.363281 -1.241584 94 104 114
-1.393736 1.363281 -1.281070 101 111 121
-1.357111 1.363281 -1.319564 97 107 117
-1.319466 1.363281 -1.357041 99 107 117
-1.280815 1.363281 -1.393389 84 94 105
-1.241137 1.363170 -1.428657 44 51 62
-1.200508 1.362305 -1.462812 77 90 97
-1.158889 1.362305 -1.495772 90 102 109
-1.116412 1.362305 -1.527593 57 69 77
-1.073169 1.362305 -1.558362 95 104 112
-1.028952 1.362305 -1.587759 96 105 114
-0.983984 1.362305 -1.615903 89 96 107
-0.938240 1.362305 -1.642764 103 114 121
-0.891753 1.362305 -1.668346 92 102 112
-0.844530 1.362305 -1.692567 64 76 86
-0.796675 1.362305 -1.715453 66 76 86
-0.748211 1.362305 -1.736990 92 102 112
-0.699113 1.362245 -1.757174 94 104 115
-0.649528 1.361392 -1.776018 95 105 115
-0.599442 1.361328 -1.793360 97 106 116
-0.548856 1.361328 -1.809298 77 87 98
-0.497842 1.361328 -1.823883 74 85 96
-0.446479 1.361328 -1.836977 88 101 111
-0.394765 1.361328 -1.848674 86 96 107
-0.342713 1.361328 -1.858900 86 100 109
-0.290436 1.361328 -1.867653 89 102 111
-0.237942 1.361328 -1.874943 89 99 110
-0.185241 1.361328 -1.880767 86 100 110
-0.132397 1.361057 -1.885101 87 100 111
-0.079487 1.360381 -1.887952 89 100 110
-0.026517 1.360352 -1.889342 89 101 112
0.026514 1.360352 -1.889238 94 108 120
0.079471 1.360352 -1.887661 90 102 113
0.132364 1.360352 -1.884561 88 100 109
0.185168 1.360352 -1.880016 88 101 110
0.237820 1.360352 -1.873998 91 103 113
0.290257 1.360352 -1.866516 88 100 109
0.342459 1.360352 -1.857550 90 104 113
0.394433 1.360352 -1.847126 90 101 112
0.446059 1.360352 -1.835258 92 104 116
0.497326 1.360352 -1.821976 94 107 116
0.548227 1.360352 -1.807214 95 105 117
0.598681 1.360352 -1.791084 93 105 116
0.648637 1.360190 -1.773528 95 105 116
0.698086 1.359797 -1.754580 100 109 119
0.747041 1.359452 -1.734244 102 114 123
0.795346 1.359375 -1.712548 106 115 123
0.843036 1.359375 -1.689577 130 138 147
0.890064 1.359375 -1.665186 138 147 149
0.936414 1.359375 -1.639522 163 167 169
0.981993 1.359375 -1.612620 195 197 199
1.026831 1.359375 -1.584412 197 198 200
1.070860 1.359375 -1.554958 198 200 201
1.114020 1.359375 -1.524309 196 198 199
1.156301 1.359375 -1.492441 194 194 196
1.197697 1.359375 -1.459391 195 196 197
1.238183 1.359375 -1.425249 193 194 195
1.277637 1.359375 -1.389899 198 197 199
1.316107 1.359375 -1.353589 195 195 196
1.353589 1.359375 -1.316114 195 195 196
1.389904 1.359375 -1.277646 196 197 199
1.425260 1.359375 -1.238188 197 197 198
1.459410 1.359375 -1.197703 195 196 197
1.492469 1.359375 -1.156321 195 196 197
1.524320 1.359375 -1.114035 159 164 168
1.554973 1.359375 -1.070884 147 155 162
1.584467 1.359375 -1.026854 125 135 142
1.612680 1.359375 -0.982021 107 118 125
1.639618 1.359375 -0.936467 115 123 130
1.665332 1.359431 -0.890123 112 119 126
1.689700 1.359808 -0.843089 109 117 126
1.712738 1.360234 -0.795407 109 117 126
1.734437 1.360352 -0.747126 108 116 126
1.754802 1.360352 -0.698158 106 115 122
1.773708 1.360352 -0.648726 109 116 124
1.791322 1.360352 -0.598763 103 111 119
1.807500 1.360352 -0.548302 103 111 120
1.822291 1.360352 -0.497413 102 110 120
1.835596 1.360352 -0.446138 99 107 116
1.847510 1.360352 -0.394521 97 105 115
1.857954 1.360352 -0.342542 94 104 113
1.866940 1.360352 -0.290322 90 101 108
1.874423 1.360352 -0.237873 89 99 109
1.878389 1.358988 -0.185020 89 97 106
1.865082 1.346385 -0.131052 72 82 92
1.843575 1.328824 -0.077670 110 119 128
1.821813 1.312120 -0.025621 26 34 40
1.796695 1.294017 0.025126 41 38 42
1.528222 1.101506 0.064119 119 133 141
1.480845 1.068954 0.103915 128 141 149
1.445973 1.046412 0.142330 129 142 150
1.412768 1.025583 0.179212 135 149 158
1.380797 1.006414 0.214666 140 152 161
1.350038 0.988657 0.248834 140 151 160
1.320238 0.972240 0.281869 151 160 168
1.291440 0.957142 0.313815 152 162 169
1.263477 0.943236 0.344848 155 165 173
1.236328 0.930445 0.374991 156 169 176
1.209868 0.918710 0.404379 156 170 177
1.184096 0.907993 0.433030 160 173 180
1.158893 0.898240 0.461043 167 176 182
1.134133 0.889342 0.488505 172 181 187
1.109889 0.881329 0.515522 174 183 187
1.086069 0.874144 0.541909 173 182 187
1.062634 0.867753 0.567957 164 174 180
1.039527 0.862139 0.593691 175 184 190
1.016694 0.857259 0.619093 164 174 180
0.994098 0.853110 0.644241 173 182 186
0.971715 0.849643 0.669140 162 174 181
0.949429 0.846900 0.693853 172 180 187
0.927309 0.844826 0.718478 189 195 199
0.917086 0.854471 0.752796 8 10 19
1.021643 0.974786 0.887853 108 100 104
1.011209 0.989172 0.929508 115 110 111
0.985587 0.990017 0.958306 127 122 124
0.959869 0.991646 0.987195 128 126 127
0.934080 0.994058 1.016214 126 124 125
0.908155 0.997294 1.045378 134 132 133
0.882030 1.001323 1.074798 137 135 137
0.855729 1.006204 1.104463 138 137 138
0.828999 1.011970 1.134461 137 137 138
0.802180 1.018553 1.164825 139 137 140
0.774809 1.026092 1.195649 140 139 140
0.747133 1.034614 1.226970 140 138 140
0.718941 1.044035 1.258844 138 137 138
0.690229 1.054546 1.291404 137 135 137
0.660897 1.066109 1.324645 133 134 135
0.630921 1.078817 1.358679 136 133 135
0.600190 1.092710 1.393317 133 133 134
0.568611 1.107843 1.429211 127 125 126
0.536161 1.124301 1.466151 124 122 122
0.502278 1.141167 1.502842 123 121 120
0.466331 1.157067 1.537474 114 111 113
0.429613 1.175132 1.574171 103 102 102
0.392257 1.196346 1.614208 96 93 94
0.353493 1.219327 1.655770 79 81 82
0.313137 1.244146 1.698973 64 68 68
0.271068 1.270828 1.743698 49 52 53
0.225395 1.289648 1.776500 10 13 18
0.178028 1.308476 1.808202 97 101 106
0.129135 1.327966 1.839520 92 97 104
0.078605 1.346762 1.868478 74 79 86
0.026474 1.359220 1.887377 69 74 79
-0.027298 1.359003 1.943898 67 71 77
-0.081858 1.360352 1.944303 71 76 82
-0.136346 1.360352 1.941238 74 78 84
-0.190747 1.360352 1.936663 74 79 85
-0.245000 1.360352 1.930564 77 82 88
-0.299038 1.360352 1.922934 79 83 89
-0.352830 1.360352 1.913800 80 84 90
-0.406402 1.360352 1.903180 84 90 94
-0.459614 1.360352 1.891072 86 91 93
-0.512476 1.360352 1.877469 81 86 90
-0.564946 1.360352 1.862369 69 74 78
-0.616965 1.360352 1.845822 80 84 89
-0.668501 1.360352 1.827844 75 79 85
-0.719507 1.360352 1.808360 72 78 81
-0.769979 1.360352 1.787530 71 77 79
-0.819824 1.360352 1.765267 70 76 78
-0.869012 1.360352 1.741638 69 75 77
-0.917535 1.360352 1.716611 66 71 75
-0.965369 1.360352 1.690227 66 71 76
-1.012268 1.360281 1.662334 64 70 71
-1.057763 1.359571 1.632182 68 73 77
-1.101976 1.358190 1.600158 65 70 76
-1.145210 1.356794 1.567026 64 68 74
-1.187558 1.355446 1.532765 67 73 80
-1.229167 1.354430 1.497736 68 71 81
-1.270575 1.354218 1.462504 69 74 80
-1.311122 1.354309 1.426381 74 80 84
-1.350699 1.354441 1.389156 76 81 86
-1.389447 1.354729 1.350957 91 98 94
-1.427617 1.355531 1.312305 136 144 143
-1.458514 1.350670 1.267072 195 205 177
-1.491875 1.349110 1.224381 195 201 185
-1.526260 1.349743 1.182531 168 183 159
-1.560843 1.351484 1.140669 164 179 155
-1.601917 1.359600 1.103173 104 112 107
-1.634701 1.361544 1.059384 83 89 90
-1.664148 1.362272 1.013382 72 78 81
-1.692323 1.362305 0.966542 64 69 73
-1.719166 1.362503 0.918911 61 66 70
-1.744704 1.363256 0.870535 62 68 73
-1.768826 1.363281 0.821473 57 62 67
-1.791469 1.363395 0.771688 59 64 70
-1.812656 1.363757 0.721186 59 63 69
-1.832092 1.363671 0.670050 61 66 72
-1.850010 1.363551 0.618352 65 71 75
-1.866507 1.363486 0.566188 66 70 75
-1.882925 1.364396 0.513956 65 70 74
-1.898252 1.365722 0.461367 65 71 75
-1.910809 1.366211 0.408041 65 71 74
-1.921457 1.366211 0.354235 68 74 78
-1.930564 1.366210 0.300233 69 75 79
-1.938187 1.366054 0.245967 70 76 82
-1.944275 1.365694 0.191495 71 77 81
-1.948837 1.365317 0.136875 75 81 83
-1.951838 1.365234 0.082175 75 81 84
-1.953327 1.365234 0.027413 76 83 87
-1.953244 1.365234 -0.027412 76 82 85
-1.951621 1.365234 -0.082167 77 82 86
-1.948481 1.365234 -0.136850 81 86 90
-1.943779 1.365234 -0.191446 83 89 93
-1.937576 1.365234 -0.245881 84 90 94
-1.929847 1.365234 -0.300094 83 89 93
-1.920550 1.365234 -0.354081 87 94 98
-1.909763 1.365234 -0.407805 88 94 98
-1.897469 1.365234 -0.461180 90 95 99
-1.883686 1.365234 -0.514165 91 96 99
-1.868373 1.365234 -0.566766 86 93 99
-1.851631 1.364637 -0.618897 88 94 99
-1.833381 1.364258 -0.670531 84 89 95
-1.813711 1.364258 -0.721606 85 89 97
-1.792606 1.364258 -0.772164 88 91 102
-1.770094 1.364258 -0.822071 84 93 101
-1.746232 1.364258 -0.871312 82 86 96
-1.720954 1.364258 -0.919877 55 64 72
-1.694358 1.364258 -0.967715 95 102 114
-1.666453 1.364258 -1.014768 96 104 115
-1.637223 1.364143 -1.061003 95 105 115
-1.606696 1.363281 -1.106496 91 100 110
-1.574909 1.363281 -1.151001 62 72 82
-1.541896 1.363281 -1.194615 94 102 111
-1.507612 1.363281 -1.237328 94 101 112
-1.472185 1.363281 -1.279014 101 111 120
-1.435715 1.363281 -1.319730 95 105 115
-1.398039 1.363281 -1.359353 71 82 92
-1.359253 1.363281 -1.397943 60 70 81
-1.319422 1.363281 -1.435410 94 104 113
-1.278580 1.363008 -1.471865 93 103 113
-1.236695 1.362305 -1.506886 101 111 118
-1.193836 1.362305 -1.540860 100 111 120
-1.150065 1.362305 -1.573631 88 98 108
-1.105554 1.362305 -1.605326 96 104 114
-1.059983 1.362305 -1.635593 97 105 114
-1.013653 1.362305 -1.664585 95 105 116
-0.966523 1.362305 -1.692229 77 88 96
-0.918619 1.362305 -1.718604 39 46 57
-0.869989 1.362305 -1.743573 56 64 75
-0.820676 1.362305 -1.767147 91 102 111
-0.770755 1.362305 -1.789337 89 101 109
-0.720173 1.361820 -1.810112 88 98 108
-0.669093 1.361328 -1.829484 89 100 108
-0.617491 1.361328 -1.847398 91 101 112
-0.565387 1.361328 -1.863821 87 99 108
-0.512845 1.361328 -1.878799 84 96 106
-0.459914 1.361328 -1.892321 85 96 106
-0.406659 1.361328 -1.904327 54 64 74
-0.353029 1.361328 -1.914853 84 96 107
-0.299188 1.361328 -1.923867 85 98 108
-0.245101 1.361328 -1.931386 82 94 104
-0.190817 1.361110 -1.937397 82 95 104
-0.136387 1.360395 -1.941852 84 97 107
-0.081878 1.360352 -1.944797 83 96 106
-0.027315 1.360352 -1.946179 86 96 107
0.027312 1.360352 -1.946068 85 98 107
0.081864 1.360352 -1.944453 84 97 108
0.136347 1.360352 -1.941287 86 98 107
0.190736 1.360352 -1.936586 88 100 110
0.244974 1.360352 -1.930378 83 97 106
0.299002 1.360352 -1.922681 87 99 109
0.352773 1.360352 -1.913447 86 98 108
0.406314 1.360352 -1.902717 87 98 108
0.459495 1.360352 -1.890461 89 101 111
0.512280 1.360352 -1.876757 90 101 110
0.564703 1.360105 -1.861582 89 103 114
0.616691 1.359648 -1.844950 89 104 113
0.668152 1.359381 -1.826883 93 103 113
0.719094 1.359375 -1.807333 99 111 120
0.769495 1.359375 -1.786411 113 130 137
0.819268 1.359375 -1.764074 192 193 195
0.868397 1.359375 -1.740357 194 196 198
0.916834 1.359375 -1.715301 195 196 198
0.964568 1.359375 -1.688821 194 196 198
1.011528 1.359375 -1.661109 194 196 197
1.057693 1.359375 -1.632053 195 196 198
1.103061 1.359375 -1.601708 194 197 197
1.147529 1.359375 -1.570143 193 196 197
1.191075 1.359375 -1.537323 195 196 197
1.233716 1.359375 -1.503359 193 194 196
1.275423 1.359375 -1.468139 193 193 194
1.316065 1.359375 -1.431750 193 194 195
1.355678 1.359375 -1.394273 194 195 196
1.394273 1.359375 -1.355685 195 196 197
1.431750 1.359375 -1.316072 195 196 197
1.468147 1.359375 -1.275435 194 195 196
1.503371 1.359375 -1.233718 195 196 197
1.537348 1.359375 -1.191086 195 196 197
1.570149 1.359375 -1.147551 195 196 198
1.601732 1.359375 -1.103081 193 194 196
1.632090 1.359375 -1.057724 195 196 198
1.661164 1.359375 -1.011561 130 141 146
1.688949 1.359375 -0.964615 114 121 128
1.715396 1.359375 -0.916904 111 117 125
1.740503 1.359375 -0.868445 107 116 123
1.764249 1.359395 -0.819342 109 118 124
1.786602 1.359746 -0.769584 106 115 122
1.807555 1.360226 -0.719159 104 113 120
1.827080 1.360352 -0.668243 107 116 124
1.845145 1.360352 -0.616775 102 110 118
1.861900 1.360352 -0.564792 101 110 117
1.877087 1.360352 -0.512377 101 109 117
1.890839 1.360352 -0.459559 96 107 115
1.903102 1.360352 -0.406393 96 104 113
1.913842 1.360352 -0.352836 92 100 110
1.923097 1.360352 -0.299057 86 95 104
1.928922 1.359107 -0.244817 87 97 107
1.916189 1.346018 -0.188791 75 83 93
1.894163 1.327381 -0.133096 105 115 123
1.871909 1.309739 -0.078868 7 12 15
1.846514 1.290980 -0.025990 53 56 57
1.803663 1.261050 0.025166 46 50 56
1.524958 1.066998 0.064029 127 140 148
1.480309 1.037545 0.103902 130 143 151
1.445818 1.015675 0.142322 130 143 152
1.412619 0.995450 0.179187 138 149 157
1.380644 0.976803 0.214642 149 159 168
1.349852 0.959579 0.248808 149 160 168
1.320065 0.943667 0.281850 154 163 171
1.291322 0.929020 0.313800 154 164 171
1.263342 0.915529 0.344812 162 172 178
1.236328 0.903107 0.374965 162 171 180
1.209763 0.891737 0.404340 161 171 179
1.183970 0.881330 0.432982 165 175 181
1.158730 0.871813 0.460999 171 180 186
1.134048 0.863218 0.488450 172 181 187
1.109801 0.855446 0.515522 176 184 189
1.085990 0.848477 0.541834 174 183 188
1.062557 0.842270 0.567909 162 172 178
1.039437 0.836812 0.593626 174 183 190
1.016582 0.832088 0.619028 166 174 181
0.994001 0.828056 0.644146 182 191 194
0.971498 0.824699 0.669077 167 176 183
0.949339 0.822015 0.693797 166 178 184
0.927221 0.820009 0.718366 183 192 195
0.916903 0.829343 0.752708 9 14 23
1.016987 0.941959 0.883873 117 111 116
1.010935 0.959948 0.929250 138 131 135
0.985311 0.960762 0.958043 136 131 134
0.959594 0.962341 0.986931 140 136 137
0.933834 0.964685 1.015923 139 137 140
0.907910 0.967820 1.045102 140 135 137
0.881805 0.971743 1.074471 143 139 142
0.855420 0.976480 1.104160 148 144 145
0.828960 0.982048 1.134148 145 141 143
0.801907 0.988461 1.164485 148 149 151
0.774642 0.995776 1.195327 148 147 148
0.746920 1.004009 1.226644 149 148 149
0.718759 1.013215 1.258549 148 147 148
0.690050 1.023418 1.291064 148 147 148
0.660731 1.034628 1.324310 146 144 146
0.630754 1.046969 1.358220 141 141 142
0.600057 1.060436 1.393265 138 134 136
0.568464 1.075100 1.429001 140 138 135
0.536023 1.091080 1.465782 137 132 132
0.502519 1.108328 1.503619 129 126 125
0.467029 1.124879 1.539794 126 124 124
0.430073 1.141919 1.575800 114 116 114
0.392601 1.162349 1.615614 104 103 102
0.353815 1.184687 1.657242 92 93 94
0.313430 1.208861 1.700512 83 84 84
0.271358 1.234968 1.745581 66 68 69
0.227141 1.261757 1.790511 50 52 53
0.179933 1.283792 1.827554 15 17 18
0.130768 1.305675 1.863140 90 93 99
0.079817 1.327575 1.897369 92 97 102
0.026966 1.346421 1.925820 75 80 87
-0.027904 1.345818 1.983631 74 78 84
-0.084279 1.358961 2.001402 64 68 75
-0.140488 1.360352 2.000290 65 70 75
-0.196553 1.360352 1.995561 71 76 82
-0.252445 1.360352 1.989272 73 78 83
-0.308135 1.360352 1.981461 74 79 85
-0.363574 1.360352 1.972064 78 82 88
-0.418771 1.360352 1.961081 80 84 90
-0.473600 1.360352 1.948578 78 83 88
-0.528044 1.360352 1.934570 79 86 87
-0.582175 1.360352 1.919045 77 82 86
-0.635742 1.360352 1.901950 72 78 81
-0.688829 1.360352 1.883437 68 73 77
-0.741385 1.360352 1.863406 70 75 78
-0.793416 1.360352 1.841925 67 73 77
-0.844763 1.360352 1.818970 65 71 75
-0.895455 1.360352 1.794629 62 67 71
-0.945426 1.360351 1.768756 63 69 70
-0.994256 1.359880 1.740814 66 71 75
-1.041543 1.358498 1.710404 65 72 70
-1.087817 1.356893 1.678530 66 71 75
-1.133153 1.355377 1.645511 64 70 76
-1.177648 1.353918 1.611403 65 69 75
-1.221384 1.352840 1.576446 68 72 78
-1.264937 1.352661 1.541529 67 72 77
-1.307684 1.352661 1.505267 72 77 81
-1.349441 1.352753 1.468058 76 81 87
-1.390197 1.352838 1.429736 79 87 87
-1.429701 1.352779 1.390116 98 106 102
-1.460237 1.345536 1.342507 125 135 123
-1.480955 1.330938 1.286646 174 189 140
-1.506478 1.322104 1.236346 204 206 198
-1.544314 1.325329 1.196475 178 194 145
-1.586443 1.332961 1.159356 183 197 140
-1.643773 1.353916 1.131981 106 111 113
-1.682678 1.360137 1.090464 80 86 90
-1.714497 1.361653 1.044054 68 74 77
-1.743549 1.362302 0.995821 65 71 75
-1.771174 1.362305 0.946710 61 66 70
-1.797366 1.362479 0.896827 60 66 70
-1.822085 1.362902 0.846211 55 60 66
-1.845142 1.362902 0.794808 60 65 71
-1.866502 1.362722 0.742609 60 65 71
-1.886364 1.362584 0.689913 58 62 69
-1.904790 1.362470 0.636664 64 69 72
-1.921862 1.362447 0.582981 65 69 75
-1.938947 1.363449 0.529247 65 70 74
-1.954998 1.364831 0.475161 67 72 76
-1.969067 1.366053 0.420475 65 70 74
-1.980192 1.366211 0.365077 66 72 75
-1.989600 1.366211 0.309400 68 73 77
-1.997421 1.366211 0.253484 71 76 80
-2.003679 1.366211 0.197349 71 77 82
-2.008375 1.366184 0.141055 74 81 85
-2.011470 1.365839 0.084686 74 78 84
-2.013013 1.365393 0.028251 77 82 86
-2.012939 1.365234 -0.028250 78 84 87
-2.011232 1.365234 -0.084676 78 83 88
-2.007998 1.365234 -0.141032 78 83 86
-2.003155 1.365234 -0.197286 82 88 92
-1.996757 1.365234 -0.253396 85 91 95
-1.988759 1.365234 -0.309272 83 89 92
-1.979216 1.365234 -0.364891 87 92 97
-1.968092 1.365234 -0.420264 95 99 105
-1.955415 1.365234 -0.475253 87 95 100
-1.941151 1.365234 -0.529855 101 114 122
-1.925366 1.365234 -0.584091 109 115 122
-1.908109 1.365048 -0.637785 97 101 106
-1.889296 1.364258 -0.690976 90 94 100
-1.869028 1.364258 -0.743635 88 93 100
-1.847275 1.364258 -0.795726 82 86 94
-1.824107 1.364258 -0.847141 32 37 45
-1.799469 1.364258 -0.897877 93 100 108
-1.773468 1.364258 -0.947922 90 97 107
-1.746002 1.364258 -0.997219 64 73 84
-1.717226 1.364258 -1.045721 71 80 90
-1.687111 1.364245 -1.093368 90 100 109
-1.655660 1.363299 -1.140212 96 104 114
-1.622903 1.363281 -1.186105 78 89 99
-1.588902 1.363281 -1.231038 92 100 109
-1.553633 1.363281 -1.275015 91 99 108
-1.517120 1.363281 -1.318009 97 107 117
-1.479456 1.363281 -1.359950 99 109 119
-1.440648 1.363281 -1.400759 80 91 102
-1.400671 1.363281 -1.440559 57 67 78
-1.359609 1.363281 -1.479133 94 105 115
-1.317501 1.362845 -1.516579 96 106 116
-1.274329 1.362305 -1.552813 85 95 105
-1.230180 1.362305 -1.587813 35 44 54
-1.185099 1.362305 -1.621531 88 101 107
-1.139184 1.362305 -1.654179 95 104 114
-1.092253 1.362305 -1.685403 99 106 115
-1.044499 1.362305 -1.715264 89 99 109
-0.995944 1.362305 -1.743768 55 66 76
-0.946568 1.362305 -1.770949 65 74 86
-0.896472 1.362305 -1.796653 85 95 105
-0.845658 1.362305 -1.820916 82 93 102
-0.794213 1.362270 -1.843802 74 87 96
-0.742100 1.361414 -1.865200 77 89 98
-0.689467 1.361328 -1.885142 79 91 99
-0.636269 1.361328 -1.903502 85 96 105
-0.582630 1.361328 -1.920544 81 95 104
-0.528444 1.361328 -1.935967 83 95 105
-0.473916 1.361328 -1.949885 83 96 105
-0.419024 1.361328 -1.962281 61 72 82
-0.363773 1.361328 -1.973110 84 96 107
-0.308279 1.361328 -1.982404 83 93 103
-0.252557 1.361175 -1.990114 78 90 100
-0.196613 1.360419 -1.996310 79 91 100
-0.140535 1.360352 -2.000914 82 93 104
-0.084368 1.360352 -2.003928 82 92 102
-0.028145 1.360352 -2.005356 82 94 104
0.028142 1.360352 -2.005247 83 96 107
0.084353 1.360352 -2.003562 81 93 102
0.140489 1.360352 -2.000301 82 94 103
0.196538 1.360352 -1.995472 82 96 105
0.252421 1.360352 -1.989103 85 95 106
0.308080 1.360352 -1.981128 83 93 104
0.363489 1.360352 -1.971602 84 97 106
0.418655 1.360352 -1.960498 87 97 107
0.473445 1.360134 -1.947953 86 96 106
0.527845 1.359613 -1.933823 85 97 107
0.581856 1.359376 -1.918170 87 100 111
0.635437 1.359375 -1.900967 92 104 113
0.688462 1.359375 -1.882373 92 103 114
0.740923 1.359375 -1.862262 95 106 115
0.792886 1.359375 -1.840707 89 103 111
0.844170 1.359375 -1.817667 192 193 195
0.894760 1.359375 -1.793256 194 196 197
0.944694 1.359375 -1.767372 191 192 194
0.993880 1.359375 -1.740166 190 192 194
1.042265 1.359375 -1.711581 192 194 195
1.089809 1.359375 -1.681664 192 194 195
1.136561 1.359375 -1.650374 193 195 196
1.182350 1.359375 -1.617839 193 194 195
1.227263 1.359375 -1.584044 192 193 194
1.271206 1.359375 -1.548976 191 192 193
1.314154 1.359375 -1.512723 193 194 196
1.356070 1.359375 -1.475246 193 194 196
1.396861 1.359375 -1.436637 194 195 196
1.436637 1.359375 -1.396867 192 193 195
1.475246 1.359375 -1.356070 193 194 195
1.512723 1.359375 -1.314154 192 193 194
1.548993 1.359375 -1.271219 193 193 195
1.584051 1.359375 -1.227287 192 193 194
1.617869 1.359375 -1.182357 193 194 196
1.650411 1.359375 -1.136579 192 193 194
1.681682 1.359375 -1.089844 192 193 195
1.711641 1.359375 -1.042297 119 124 130
1.740252 1.359375 -0.993924 111 118 125
1.767561 1.359375 -0.944745 109 116 125
1.793373 1.359375 -0.894830 106 114 124
1.817851 1.359375 -0.844224 105 113 121
1.840889 1.359375 -0.792967 102 110 118
1.862503 1.359400 -0.741014 101 109 117
1.882642 1.359815 -0.688556 102 111 120
1.901321 1.360294 -0.635515 101 108 115
1.918449 1.360352 -0.581920 99 108 115
1.934158 1.360352 -0.527947 96 105 112
1.948292 1.360352 -0.473530 92 102 110
1.960935 1.360352 -0.418740 91 98 108
1.972011 1.360352 -0.363563 86 96 105
1.980297 1.359536 -0.307975 84 94 103
1.968836 1.346361 -0.249924 70 78 86
1.946493 1.326867 -0.191783 100 109 117
1.923727 1.308342 -0.135177 14 17 20
1.895979 1.287413 -0.079916 47 51 56
1.852493 1.256909 -0.026108 59 64 65
1.803426 1.223648 0.025165 58 63 69
1.525130 1.035602 0.064036 137 150 157
1.480107 1.006748 0.103894 136 147 155
1.445700 0.985508 0.142312 147 157 164
1.412440 0.965929 0.179177 144 153 160
1.380508 0.947805 0.214623 151 161 168
1.349736 0.931090 0.248788 148 159 166
1.319974 0.915679 0.281820 162 172 178
1.291164 0.901448 0.313785 162 170 176
1.263269 0.888357 0.344777 165 174 181
1.236106 0.876318 0.374920 163 172 179
1.209678 0.865279 0.404277 170 179 185
1.183854 0.855174 0.432946 169 178 184
1.158649 0.845969 0.460952 172 182 188
1.133942 0.837607 0.488428 178 186 191
1.109740 0.830071 0.515478 175 183 188
1.085954 0.823306 0.541770 181 187 193
1.062442 0.817300 0.567874 182 189 194
1.039337 0.812003 0.593562 180 188 193
